ply
format ascii 1.0
comment PCL generated
element vertex 1545
property float x
property float y
property float z
element camera 0
property float view_px
property float view_py
property float view_pz
property float x_axisx
property float x_axisy
property float x_axisz
property float y_axisx
property float y_axisy
property float y_axisz
property float z_axisx
property float z_axisy
property float z_axisz
property float focal
property float scalex
property float scaley
property float centerx
property float centery
property int viewportx
property int viewporty
property float k1
property float k2
end_header
418.43478 -61.366734 140.14784
417.57327 -63.934654 139.98291
418.43729 -61.359936 140.177
417.57349 -63.93438 140.00237
418.43826 -61.357704 140.20555
417.57321 -63.934788 140.02176
418.43848 -61.356373 140.23404
417.57224 -63.937664 140.04103
418.43466 -61.367722 140.26157
417.57288 -63.935638 140.06067
418.43692 -61.360962 140.29054
417.57211 -63.937943 140.08014
418.43488 -61.367073 140.31871
417.57257 -63.936527 140.09996
417.57275 -63.935886 140.11972
417.57159 -63.939308 140.13901
417.57217 -63.937599 140.15877
417.57144 -63.939713 140.17805
417.57132 -63.940025 140.19775
417.57196 -63.938038 140.21768
417.57077 -63.942047 140.23691
417.57141 -63.94046 140.25681
417.57181 -63.938843 140.27666
417.57101 -63.941097 140.29605
417.57077 -63.941765 140.31564
417.57108 -63.940849 140.33546
417.57077 -63.941662 140.35521
417.55746 -63.981262 140.36925
417.55676 -63.983345 140.38863
417.55814 -63.979145 140.40889
417.5567 -63.983421 140.42766
417.5571 -63.982178 140.44766
417.55841 -63.97818 140.46806
417.55811 -63.979465 140.48779
417.55725 -63.982433 140.5071
417.5575 -63.981148 140.52705
417.55771 -63.980427 140.54688
417.55612 -63.985146 140.56575
417.55701 -63.982437 140.58591
417.55792 -63.979633 140.60655
417.55704 -63.982224 140.62599
417.55612 -63.984886 140.64549
417.55667 -63.983112 140.66545
417.55627 -63.984249 140.68515
417.55624 -63.984257 140.70494
417.5575 -63.980427 140.72586
417.55664 -63.982929 140.74542
417.55646 -63.983402 140.76541
417.55661 -63.983334 140.7858
417.55722 -63.981838 140.806
417.55545 -63.986633 140.82509
417.55505 -63.987766 140.84473
417.55658 -63.983055 140.86629
417.55521 -63.987125 140.88544
417.55463 -63.988762 140.9054
417.55722 -63.980968 140.92755
417.55466 -63.988472 140.94598
417.55466 -63.98838 140.96608
417.55484 -63.98774 140.98672
417.55542 -63.985989 141.00755
417.55502 -63.987083 141.02774
417.55475 -63.987782 141.04807
417.55539 -63.985775 141.06908
417.55417 -63.989365 141.08868
417.55307 -63.992519 141.10826
417.55493 -63.986824 141.13043
417.5542 -63.988968 141.15034
417.5527 -63.993343 141.1701
417.55481 -63.986938 141.19257
417.55313 -63.992798 141.2115
417.55151 -63.997017 141.23103
417.55386 -63.989906 141.25383
417.55289 -63.992733 141.27393
417.55173 -63.996078 141.2939
417.55389 -63.989521 141.31709
417.55292 -63.992329 141.33731
417.55109 -63.99765 141.35657
417.55475 -63.986679 141.38095
417.55212 -63.994396 141.39948
417.55209 -63.994308 141.42076
417.55215 -63.994049 141.44209
417.55148 -63.995934 141.46288
417.55087 -63.997639 141.48367
417.55319 -63.990623 141.50749
417.55133 -63.996025 141.52692
417.55014 -63.999451 141.54698
417.55099 -63.996777 141.56969
417.54984 -64.000137 141.58992
417.54932 -64.001602 141.61104
417.54965 -64.000923 141.63293
417.55096 -63.99733 141.65569
417.54987 -64.000084 141.67644
417.55029 -63.998646 141.69862
417.54977 -64.000031 141.72
417.54822 -64.004601 141.74017
417.54916 -64.001671 141.76328
417.55051 -63.997471 141.78688
417.54816 -64.004417 141.80605
417.54834 -64.003693 141.82835
417.54776 -64.00528 141.84985
417.54736 -64.006355 141.87186
417.54727 -64.006523 141.89397
417.548 -64.004677 141.91716
417.54672 -64.008781 141.93773
417.54916 -64.000946 141.96321
417.54916 -64.000778 141.98572
417.54626 -64.009277 142.00462
417.54868 -64.001953 142.03075
417.54785 -64.004234 142.05243
417.54721 -64.006027 142.07462
417.54877 -64.001259 142.09953
417.539 -64.030624 142.10854
417.5206 -64.0858 142.10538
417.52878 -64.050201 144.08615
417.53384 -64.034843 144.12993
417.53345 -64.035728 144.16057
417.53439 -64.03373 144.19354
417.53281 -64.037621 144.22156
417.53384 -64.034264 144.25583
417.5322 -64.03894 144.28374
417.5336 -64.034454 144.31946
417.53085 -64.042366 144.34497
417.53271 -64.036537 144.38225
417.53119 -64.040825 144.41074
417.53317 -64.034592 144.44881
417.53064 -64.041862 144.47495
417.53308 -64.034386 144.51469
417.53168 -64.038834 144.54396
417.53241 -64.036896 144.57944
417.53061 -64.041428 144.60907
417.53113 -64.039566 144.64445
417.5296 -64.043777 144.67451
417.5307 -64.040215 144.71178
417.52985 -64.042473 144.74377
417.53015 -64.041237 144.77979
417.52872 -64.045258 144.81097
417.52969 -64.04258 144.84833
417.53 -64.041939 144.8842
417.52957 -64.042389 144.91911
417.52942 -64.042473 144.95416
417.5282 -64.045769 144.98648
417.52948 -64.041702 145.02684
417.5271 -64.048424 145.05653
417.52795 -64.045563 145.09616
417.52719 -64.048744 145.12953
417.52811 -64.045013 145.16983
417.52661 -64.049194 145.20273
417.52661 -64.048859 145.24065
417.52795 -64.04454 145.28308
417.52594 -64.050148 145.315
417.52689 -64.046959 145.35625
417.52563 -64.050339 145.39122
417.52618 -64.048424 145.43179
417.52637 -64.048119 145.4707
417.52496 -64.052605 145.50568
417.52625 -64.047722 145.55023
417.52383 -64.054588 145.58257
417.52515 -64.05027 145.62703
417.52509 -64.050102 145.6669
417.52402 -64.052933 145.70413
417.52441 -64.051384 145.74684
417.52252 -64.056656 145.78212
417.52304 -64.054695 145.82588
417.52478 -64.049088 145.87448
417.522 -64.057632 145.90639
417.52478 -64.049644 145.95744
417.52612 -64.044624 146.00526
417.50879 -64.095985 145.9877
417.49664 -64.131775 145.98817
417.49881 -63.990017 139.11942
417.51981 -63.927444 139.13382
417.52072 -63.924736 139.15294
417.52097 -63.923958 139.17249
417.51929 -63.928925 139.19234
417.52014 -63.926373 139.2119
417.51947 -63.928379 139.23166
417.52045 -63.925491 139.25084
417.52362 -63.916031 139.26984
417.52548 -63.910419 139.28894
417.52966 -63.897995 139.30792
418.07608 -62.268486 139.23454
417.52905 -63.899837 139.32764
418.07507 -62.27153 139.25999
417.52878 -63.900562 139.34715
418.07703 -62.265656 139.28491
417.52917 -63.899445 139.36681
418.08017 -62.256302 139.31001
417.52841 -63.901714 139.38629
418.0864 -62.237793 139.33452
419.83868 -57.012421 139.17195
417.52936 -63.89883 139.40561
419.84512 -56.993279 139.2146
417.52902 -63.899796 139.42509
419.84546 -56.992279 139.25798
417.53018 -63.89632 139.44464
419.84491 -56.994011 139.30174
417.53085 -63.894321 139.46437
419.84473 -56.99469 139.34578
417.52856 -63.901157 139.48401
419.84851 -56.983425 139.38916
417.52911 -63.899525 139.50345
419.84518 -56.993393 139.43268
417.52859 -63.901031 139.52293
419.85471 -56.965099 139.47588
417.52878 -63.900467 139.54245
419.84595 -56.991215 139.51959
417.52878 -63.900436 139.5619
419.37595 -58.392689 139.56276
419.84894 -56.982391 139.56299
417.5296 -63.89838 139.58159
419.84866 -56.98423 139.60687
417.53305 -63.888565 139.6012
419.36243 -58.434845 139.64009
417.53522 -63.881561 139.62091
417.53284 -63.888649 139.6402
417.53122 -63.893425 139.65968
419.87918 -56.893482 139.78244
417.53046 -63.895657 139.6792
419.85971 -56.951595 139.82512
417.53079 -63.894634 139.69891
419.84366 -56.999416 139.86797
417.52969 -63.897934 139.71831
419.85233 -56.973667 139.91208
417.52783 -63.903435 139.7379
419.84821 -56.985985 139.95581
417.52786 -63.903301 139.75737
419.8465 -56.991074 139.99907
417.52789 -63.903225 139.7767
419.84134 -57.006474 140.04161
417.52795 -63.902973 139.79619
419.84195 -57.004723 140.08508
417.52768 -63.903736 139.8157
419.84146 -57.006195 140.12859
417.52786 -63.903137 139.8353
419.84354 -56.999989 140.17247
417.52756 -63.904018 139.85481
419.84027 -57.009781 140.21558
417.52716 -63.905205 139.87439
419.84244 -57.003384 140.25967
417.52655 -63.906925 139.89392
419.8396 -57.011795 140.30298
417.52792 -63.902779 139.91362
419.84033 -57.00967 140.34641
417.52737 -63.904377 139.93311
419.83948 -57.012192 140.38988
419.83939 -57.012474 140.43336
419.83853 -57.015022 140.47668
419.84387 -57.000111 140.52184
419.84021 -57.012047 140.56496
418.39444 -61.320263 140.24779
417.52631 -63.907738 140.05045
418.39142 -61.329273 140.27538
418.39081 -61.331043 140.30347
418.39136 -61.329407 140.3325
418.39075 -61.33115 140.36104
417.52579 -63.909126 140.12894
418.38806 -61.339134 140.38914
418.39062 -61.331394 140.41876
418.36426 -61.410015 140.4388
418.36276 -61.414425 140.46658
418.36264 -61.414711 140.49515
418.36124 -61.41885 140.52318
418.36411 -61.410885 140.55257
418.36719 -61.402328 140.58234
418.36691 -61.402435 140.61093
418.36731 -61.401237 140.63933
418.3671 -61.401814 140.66782
418.36655 -61.403416 140.69618
417.51498 -63.941059 140.36108
418.35782 -61.42934 140.72139
417.50742 -63.963562 140.37773
417.50644 -63.966373 140.397
417.50806 -63.961483 140.41731
417.50739 -63.963436 140.43646
417.50665 -63.965481 140.45581
417.5079 -63.961723 140.47604
417.50586 -63.968193 140.49496
417.50702 -63.965096 140.5153
417.5083 -63.960808 140.53587
417.50723 -63.96384 140.55498
417.50671 -63.965321 140.57451
417.50735 -63.963375 140.59476
417.50748 -63.962883 140.6147
417.50604 -63.96714 140.6339
417.50729 -63.96328 140.65454
417.50705 -63.96394 140.67447
417.50656 -63.965332 140.69412
417.50674 -63.964668 140.71408
417.50684 -63.964302 140.73401
417.50555 -63.968014 140.75345
417.50537 -63.968498 140.77338
417.50739 -63.962856 140.79483
417.50629 -63.966503 140.81398
417.50381 -63.973362 140.83237
417.50623 -63.966015 140.85428
417.50571 -63.967533 140.87418
417.50452 -63.970993 140.89377
417.50601 -63.9664 140.91519
417.5058 -63.966976 140.93546
417.50504 -63.969151 140.95499
417.5043 -63.971191 140.97472
417.50565 -63.967079 140.99605
417.50436 -63.970875 141.01546
417.5051 -63.968544 141.03656
417.50543 -63.967484 141.0576
417.50412 -63.971264 141.07713
417.50388 -63.971874 141.09749
417.50516 -63.967957 141.11906
417.50427 -63.970482 141.13872
417.50348 -63.972706 141.15884
417.505 -63.968086 141.18077
417.50323 -63.973686 141.2
417.50354 -63.97319 141.22104
417.50314 -63.973793 141.24168
417.50357 -63.972404 141.26276
417.50266 -63.975033 141.28294
417.50375 -63.971592 141.30505
417.50262 -63.974812 141.32512
417.50189 -63.976921 141.3454
417.50266 -63.974567 141.36717
417.50238 -63.97525 141.38806
417.50162 -63.97736 141.40852
417.50034 -63.981117 141.42847
417.50189 -63.976353 141.45125
417.50113 -63.978489 141.47195
417.49997 -63.981773 141.49214
417.49969 -63.982452 141.51335
417.49966 -63.982441 141.53453
417.49893 -63.984539 141.55508
417.5004 -63.980034 141.57822
417.50031 -63.980156 141.59998
417.49866 -63.984955 141.61974
417.50107 -63.978104 141.64412
417.49905 -63.984428 141.66339
417.49817 -63.986488 141.68425
417.49985 -63.981274 141.70782
417.49942 -63.982418 141.72917
417.49908 -63.983269 141.7509
417.49875 -63.984192 141.77266
417.49725 -63.988487 141.79303
417.49731 -63.988129 141.81508
417.49878 -63.983627 141.83879
417.49673 -63.989578 141.85828
417.49722 -63.988014 141.88132
417.49783 -63.986042 141.90443
417.49698 -63.988895 141.92583
417.49701 -63.989162 141.9483
417.49881 -63.983116 141.97305
417.49667 -63.989353 141.99286
417.49731 -63.987324 142.01625
417.49805 -63.984974 142.03996
417.49796 -63.985111 142.06262
417.49765 -63.985821 142.08527
417.4978 -63.985249 142.10838
417.48044 -64.037239 142.10699
417.4812 -64.022926 144.10713
417.4827 -64.018158 144.142
417.4841 -64.014191 144.17693
417.48315 -64.017303 144.20586
417.48297 -64.017052 144.23758
417.48257 -64.017944 144.26819
417.48175 -64.020111 144.29796
417.48306 -64.01593 144.33362
417.48282 -64.016296 144.36554
417.4809 -64.021767 144.39326
417.48135 -64.020081 144.4278
417.48145 -64.019478 144.46083
417.48181 -64.01812 144.49475
417.48074 -64.021599 144.52443
417.48114 -64.020653 144.55852
417.48087 -64.020622 144.59222
417.48001 -64.022835 144.62387
417.48083 -64.020081 144.66042
417.47986 -64.022644 144.69223
417.47925 -64.024162 144.72456
417.4794 -64.023415 144.75935
417.47885 -64.024704 144.79303
417.48062 -64.019073 144.83342
417.4783 -64.026222 144.86168
417.47946 -64.023094 144.90019
417.47849 -64.025055 144.93347
417.47763 -64.027222 144.96678
417.47717 -64.028282 145.00166
417.47739 -64.027321 145.03888
417.47699 -64.028145 145.07469
417.47681 -64.0289 145.1106
417.47736 -64.027596 145.1488
417.47595 -64.030792 145.18185
417.47803 -64.024223 145.22565
417.47467 -64.033913 145.25287
417.47598 -64.029625 145.29565
417.47504 -64.032059 145.33125
417.47501 -64.031815 145.3699
417.47556 -64.029755 145.41075
417.47388 -64.035065 145.44363
417.47461 -64.033066 145.48459
417.47372 -64.034737 145.52199
417.47388 -64.03392 145.56256
417.47409 -64.032875 145.60384
417.47217 -64.038261 145.63795
417.47421 -64.031715 145.68518
417.47296 -64.035042 145.72183
417.47186 -64.037979 145.75899
417.47366 -64.032211 145.80661
417.47128 -64.038841 145.841
417.47269 -64.034286 145.8882
417.47357 -64.032516 145.93239
417.47321 -64.032501 145.97462
417.46677 -64.051353 145.99487
417.45322 -64.091377 145.99037
417.4675 -63.916859 139.12305
417.47055 -63.907722 139.14182
417.47018 -63.90881 139.16136
417.46899 -63.912323 139.18105
417.46994 -63.9095 139.20052
417.46991 -63.909584 139.22003
417.47153 -63.904755 139.23932
417.47034 -63.908279 139.25888
417.4751 -63.894108 139.27757
417.47949 -63.880932 139.29655
419.79654 -56.969769 138.97092
417.47943 -63.881088 139.31599
419.79501 -56.974403 139.01445
417.47913 -63.882004 139.33574
419.79556 -56.972755 139.0583
417.4787 -63.883221 139.35535
419.79553 -56.972916 139.10193
417.47757 -63.886627 139.37515
419.79474 -56.975338 139.14592
417.47806 -63.885128 139.3945
419.79532 -56.973644 139.18913
417.47797 -63.885349 139.41389
419.79428 -56.97683 139.23247
417.47977 -63.87994 139.4333
419.79462 -56.975872 139.276
417.47742 -63.886913 139.45293
419.79379 -56.978374 139.31946
417.47775 -63.885891 139.47256
419.79388 -56.978161 139.36331
417.47943 -63.880898 139.49217
419.79343 -56.979504 139.40718
417.47842 -63.883789 139.51181
419.79898 -56.962975 139.45071
417.4787 -63.88295 139.53119
419.7937 -56.978821 139.49408
417.47937 -63.880989 139.55051
419.79437 -56.976784 139.53712
417.48029 -63.878136 139.56998
419.3338 -58.350368 139.5784
419.79709 -56.968719 139.58052
417.48007 -63.879185 139.58951
419.33389 -58.351048 139.61716
419.7991 -56.963737 139.6241
417.48065 -63.877922 139.60907
419.78534 -57.005821 139.66733
417.48074 -63.877106 139.62891
419.82108 -56.898285 139.71269
417.48026 -63.878529 139.64844
419.82288 -56.892906 139.75659
417.48111 -63.875984 139.66805
419.7973 -56.969185 139.79898
417.47955 -63.880604 139.68721
419.80014 -56.960743 139.84212
417.48026 -63.878422 139.70703
419.79132 -56.987053 139.88553
417.47882 -63.88269 139.72639
419.79233 -56.984104 139.92899
417.47998 -63.879204 139.74606
419.79184 -56.985554 139.97249
417.478 -63.885021 139.76549
419.79144 -56.986675 140.01616
417.47992 -63.879295 139.78548
419.79349 -56.980602 140.06042
417.47464 -63.894936 139.80415
419.79382 -56.979607 140.10359
417.47818 -63.884346 139.82404
419.78943 -56.992722 140.14626
417.47876 -63.882584 139.84361
419.79196 -56.985138 140.19005
417.47781 -63.88538 139.86298
419.78915 -56.993553 140.23306
417.48047 -63.877357 139.88307
419.78888 -56.994308 140.27676
419.78882 -56.994488 140.32053
419.78815 -56.996452 140.36403
419.78818 -56.996414 140.40752
419.78732 -56.99889 140.45099
419.78882 -56.995453 140.49492
419.79205 -56.986736 140.53963
419.79578 -56.974621 140.5842
418.34094 -61.311954 140.2587
418.34076 -61.312504 140.28709
418.34116 -61.311241 140.31558
418.34067 -61.312695 140.34413
418.33823 -61.319908 140.37222
418.33929 -61.316612 140.40158
418.32343 -61.363846 140.42529
418.31174 -61.398643 140.45006
418.3103 -61.402851 140.47784
418.31042 -61.402424 140.50607
418.31128 -61.400532 140.53482
418.31674 -61.384823 140.56509
418.31662 -61.384438 140.59406
418.31677 -61.383945 140.62286
418.31616 -61.385654 140.65129
418.31656 -61.384384 140.68004
417.47623 -63.889313 140.35452
418.31766 -61.381077 140.70901
417.45639 -63.948376 140.36562
417.457 -63.946472 140.38571
417.45786 -63.943916 140.40587
417.45645 -63.947975 140.4249
417.45676 -63.946953 140.44485
417.45654 -63.947575 140.46416
417.45779 -63.944153 140.48457
417.45599 -63.94989 140.50327
417.45749 -63.944866 140.524
417.45709 -63.946026 140.54364
417.45718 -63.945621 140.56366
417.45737 -63.945004 140.58344
417.45728 -63.945175 140.60324
417.45609 -63.948635 140.62222
417.45657 -63.947102 140.64261
417.45697 -63.945827 140.66277
417.45654 -63.947025 140.68289
417.45602 -63.948418 140.70241
417.4559 -63.948708 140.72218
417.45691 -63.945591 140.74277
417.45535 -63.950203 140.76173
417.45651 -63.947056 140.78255
417.45639 -63.947735 140.80278
417.45398 -63.95438 140.82152
417.45551 -63.949741 140.84262
417.45599 -63.948196 140.86314
417.45584 -63.948524 140.88304
417.45505 -63.950794 140.90265
417.45575 -63.948555 140.92358
417.45554 -63.949154 140.94386
417.45343 -63.955322 140.96262
417.45532 -63.94957 140.98442
417.45517 -63.949875 141.00471
417.4534 -63.955078 141.02376
417.45535 -63.949078 141.04578
417.45493 -63.950275 141.06593
417.45383 -63.953442 141.08588
417.45233 -63.957729 141.10513
417.45419 -63.952053 141.12744
417.4534 -63.954376 141.14716
417.45139 -63.960262 141.16615
417.4534 -63.954071 141.18855
417.45316 -63.955128 141.20912
417.4519 -63.95924 141.22887
417.45312 -63.955044 141.25082
417.45267 -63.956245 141.27136
417.45151 -63.959541 141.29118
417.45248 -63.956524 141.31296
417.45145 -63.959457 141.33281
417.45135 -63.959671 141.35417
417.45297 -63.954651 141.37691
417.45096 -63.960587 141.39616
417.452 -63.957298 141.41844
417.45126 -63.959423 141.43864
417.45099 -63.960075 141.45953
417.45035 -63.961807 141.48047
417.44998 -63.962757 141.50188
417.45129 -63.958725 141.5247
417.44815 -63.967972 141.54269
417.44989 -63.962654 141.56577
417.45029 -63.961296 141.58772
417.4487 -63.965851 141.60764
417.45093 -63.959599 141.63168
417.45056 -63.961018 141.65294
417.4483 -63.967125 141.6725
417.44879 -63.965523 141.69496
417.44949 -63.963211 141.71738
417.44662 -63.971691 141.73578
417.44821 -63.966766 141.75972
417.44824 -63.96656 141.7818
417.44556 -63.974396 141.80066
417.44788 -63.967316 141.82578
417.44739 -63.968643 141.84731
417.44769 -63.967564 141.86972
417.44757 -63.967693 141.89175
417.44705 -63.96962 141.91353
417.44583 -63.973572 141.93439
417.44614 -63.971966 141.95749
417.44827 -63.965424 141.98274
417.4469 -63.969421 142.00331
417.44684 -63.969395 142.02586
417.44717 -63.968197 142.04916
417.44589 -63.971848 142.07025
417.44806 -63.965218 142.09634
417.44693 -63.96846 142.11798
417.42236 -64.042427 142.1064
417.42416 -64.023476 144.07443
417.43384 -63.994358 144.1293
417.43069 -64.003426 144.15277
417.43353 -63.995171 144.1908
417.43143 -64.001717 144.217
417.43253 -63.997639 144.25201
417.43082 -64.002419 144.27971
417.43225 -63.997784 144.31566
417.43027 -64.003365 144.34293
417.43228 -63.99704 144.3804
417.43124 -63.99984 144.41054
417.43112 -63.999924 144.44336
417.42987 -64.003296 144.47318
417.4306 -64.000786 144.50832
417.42953 -64.004196 144.53825
417.43109 -63.99984 144.57539
417.42819 -64.007576 144.60172
417.42996 -64.001976 144.64098
417.42792 -64.007767 144.66992
417.42853 -64.005531 144.70615
417.42734 -64.008759 144.73708
417.42776 -64.007187 144.77272
417.42688 -64.009407 144.80521
417.4285 -64.00489 144.84453
417.42697 -64.009697 144.87523
417.42755 -64.006981 144.91356
417.42667 -64.009293 144.94676
417.42612 -64.010544 144.98119
417.42767 -64.005501 145.02194
417.42557 -64.01149 145.05194
417.42746 -64.005447 145.0946
417.42551 -64.011452 145.12505
417.42654 -64.008659 145.16553
417.42517 -64.011772 145.19917
417.4248 -64.012459 145.23572
417.42542 -64.010208 145.27541
417.42365 -64.015114 145.30803
417.42569 -64.008652 145.35294
417.42261 -64.017487 145.38237
417.42337 -64.014786 145.42357
417.4231 -64.0158 145.46141
417.4231 -64.016037 145.50008
417.42429 -64.011444 145.54425
417.42221 -64.01722 145.57761
417.42258 -64.015755 145.61943
417.42151 -64.018501 145.65674
417.42142 -64.018356 145.69722
417.42303 -64.013153 145.74355
417.42087 -64.019157 145.77753
417.42139 -64.017174 145.82095
417.42123 -64.017159 145.86278
417.4201 -64.020737 145.90111
417.42142 -64.017044 145.94786
417.42484 -64.005707 146.00317
417.40936 -64.051582 145.99152
417.39569 -64.092049 145.98602
417.39371 -63.970066 139.11751
417.41898 -63.894699 139.13112
417.41946 -63.893147 139.15045
417.4198 -63.892132 139.16985
417.4191 -63.894257 139.18936
417.41843 -63.896191 139.20906
417.41925 -63.893688 139.22855
417.41968 -63.892441 139.24789
417.41949 -63.892902 139.26755
417.42383 -63.87994 139.28625
417.42822 -63.866795 139.3051
419.74496 -56.95507 138.9893
417.42801 -63.867443 139.32454
419.74475 -56.95573 139.03264
417.42862 -63.865551 139.34389
417.4277 -63.868206 139.36374
419.74405 -56.957909 139.12009
417.42847 -63.865952 139.38329
419.74353 -56.959438 139.16388
417.42798 -63.867313 139.40302
419.74347 -56.959679 139.20778
417.42828 -63.866371 139.42252
419.74405 -56.957932 139.2513
417.42834 -63.866203 139.44185
419.74261 -56.962254 139.29448
417.4274 -63.868935 139.46135
419.74271 -56.961964 139.33784
417.42804 -63.866989 139.48093
419.74316 -56.960621 139.38153
417.42715 -63.869606 139.50047
419.7431 -56.960838 139.42506
417.42728 -63.869202 139.52014
419.74313 -56.960712 139.46892
417.42935 -63.862934 139.53949
419.74387 -56.958595 139.51213
417.42905 -63.863838 139.5591
419.26926 -58.374325 139.55649
419.7457 -56.953056 139.55582
417.42874 -63.865086 139.57841
419.29318 -58.303818 139.59489
419.74789 -56.947517 139.59892
417.42862 -63.865921 139.59795
419.27689 -58.353374 139.63344
419.75711 -56.921017 139.64267
417.42935 -63.863171 139.61765
419.77817 -56.857243 139.68729
417.42871 -63.865028 139.63724
419.74414 -56.958672 139.72998
417.42966 -63.862209 139.65675
419.77606 -56.863514 139.77498
417.42944 -63.862766 139.67628
419.74149 -56.966625 139.81676
417.43066 -63.859119 139.69579
419.75159 -56.93644 139.8607
417.4278 -63.867619 139.71512
419.746 -56.953079 139.90388
417.42877 -63.864574 139.73495
419.741 -56.967968 139.94749
417.42865 -63.864902 139.75443
419.74384 -56.959522 139.99117
417.42667 -63.870743 139.77391
419.73929 -56.973022 140.03456
417.42801 -63.866692 139.79353
419.73901 -56.973846 140.07793
417.42703 -63.869572 139.81297
419.73907 -56.973629 140.12149
417.42642 -63.871315 139.83215
419.7402 -56.970207 140.16458
417.42929 -63.862705 139.85194
419.73804 -56.976631 140.20738
417.42712 -63.869087 139.8714
419.73804 -56.976604 140.25143
417.42725 -63.868668 139.89113
419.73776 -56.977421 140.29532
419.73688 -56.980003 140.33861
417.42728 -63.868469 139.93033
419.7384 -56.975407 140.38269
419.73727 -56.978745 140.42612
419.73602 -56.982445 140.46936
419.74271 -56.963448 140.51433
419.73865 -56.97649 140.55673
418.29053 -61.294128 140.24191
418.29111 -61.292297 140.27103
418.2919 -61.289829 140.29993
418.28976 -61.296169 140.32782
418.29044 -61.294117 140.35672
418.28702 -61.304188 140.38441
418.28787 -61.301594 140.41328
418.2648 -61.370308 140.43452
418.26178 -61.379219 140.46223
418.26105 -61.381371 140.49059
418.26059 -61.382629 140.51865
418.26077 -61.382637 140.54697
418.26685 -61.365089 140.57761
418.26602 -61.366871 140.60641
418.26575 -61.367558 140.63477
418.26569 -61.367641 140.66331
418.26498 -61.369698 140.69162
417.41849 -63.893791 140.3598
418.26337 -61.374409 140.71944
417.40634 -63.929897 140.37445
417.40656 -63.929153 140.3941
417.40683 -63.928276 140.41409
417.40567 -63.931664 140.43329
417.40683 -63.928082 140.4536
417.40704 -63.927341 140.47327
417.40579 -63.931404 140.49225
417.4068 -63.928753 140.51244
417.40823 -63.923992 140.53316
417.40692 -63.927746 140.55235
417.40561 -63.931587 140.57167
417.40701 -63.927254 140.59215
417.40686 -63.927658 140.61177
417.40564 -63.931179 140.63097
417.40652 -63.928471 140.65138
417.40643 -63.928619 140.67126
417.40561 -63.930954 140.69087
417.40546 -63.931286 140.71106
417.4071 -63.926254 140.73195
417.40466 -63.933414 140.75052
417.40509 -63.932011 140.77078
417.40698 -63.926781 140.79193
417.40549 -63.931572 140.81082
417.40536 -63.93132 140.83128
417.40515 -63.93182 140.85132
417.40515 -63.931702 140.87158
417.4035 -63.936508 140.89072
417.40286 -63.93832 140.91034
417.40491 -63.932137 140.93204
417.4035 -63.936203 140.95139
417.40338 -63.936447 140.97185
417.40469 -63.932335 140.99326
417.40372 -63.935184 141.01282
417.40317 -63.936714 141.03275
417.40366 -63.935123 141.0537
417.40305 -63.936768 141.07358
417.4028 -63.937416 141.09413
417.40213 -63.939259 141.1143
417.40375 -63.934284 141.13637
417.40176 -63.940102 141.15524
417.4025 -63.937729 141.17642
417.40213 -63.939201 141.19684
417.40234 -63.938862 141.21759
417.40277 -63.936962 141.23906
417.40228 -63.938332 141.25945
417.40186 -63.939407 141.28033
417.40161 -63.940022 141.3011
417.40051 -63.943142 141.32086
417.40137 -63.940453 141.34261
417.40021 -63.943787 141.36267
417.40176 -63.93898 141.38519
417.39969 -63.945 141.40466
417.39893 -63.947182 141.42519
417.40002 -63.943707 141.44736
417.39877 -63.947338 141.46732
417.39859 -63.947678 141.48851
417.39914 -63.945889 141.51065
417.39923 -63.94548 141.53221
417.39755 -63.950329 141.552
417.3992 -63.945309 141.57515
417.39838 -63.947586 141.59587
417.39709 -63.951248 141.61603
417.3996 -63.944084 141.64029
417.40012 -63.942833 141.66249
417.39697 -63.951591 141.68089
417.39847 -63.946926 141.70464
417.39828 -63.947361 141.72617
417.39679 -63.951645 141.74622
417.39862 -63.946045 141.77032
417.39682 -63.951237 141.79041
417.3959 -63.953789 141.81143
417.39752 -63.948761 141.83583
417.39642 -63.951881 141.85664
417.39566 -63.953945 141.87784
417.39725 -63.949043 141.90202
417.39575 -63.953777 141.92238
417.39618 -63.95285 141.9451
417.39685 -63.95018 141.9687
417.39523 -63.954788 141.98961
417.39545 -63.954025 142.01236
417.39713 -63.948818 142.03732
417.39648 -63.950596 142.05899
417.39606 -63.951637 142.08121
417.39685 -63.94912 142.10529
417.38049 -63.998192 142.10564
417.37863 -63.989113 144.1015
417.38025 -63.983887 144.1366
417.3819 -63.979252 144.17148
417.38095 -63.982338 144.20039
417.37988 -63.984585 144.22984
417.3804 -63.982677 144.2636
417.37949 -63.985115 144.29333
417.37958 -63.984512 144.32574
417.37891 -63.98621 144.35587
417.38 -63.982605 144.39127
417.37909 -63.984978 144.42159
417.37939 -63.983715 144.45578
417.37781 -63.988094 144.48488
417.37881 -63.984783 144.52129
417.3786 -63.986145 144.55319
417.37878 -63.98473 144.58751
417.37781 -63.987274 144.61845
417.37897 -63.983418 144.65598
417.37723 -63.988258 144.68564
417.37708 -63.988384 144.72011
417.37726 -63.987434 144.75542
417.37628 -63.989986 144.78725
417.37677 -63.988174 144.82355
417.37665 -63.9888 144.85767
417.37708 -63.987679 144.89444
417.37473 -63.993786 144.92401
417.37653 -63.987949 144.96553
417.37369 -63.996075 144.99338
417.37589 -63.989136 145.03598
417.37415 -63.993916 145.06714
417.3754 -63.99041 145.10741
417.37531 -63.990913 145.14403
417.37326 -63.995995 145.17592
417.37418 -63.992863 145.21666
417.37335 -63.994946 145.25145
417.37393 -63.992771 145.29117
417.37204 -63.998005 145.32338
417.37311 -63.994431 145.36563
417.37274 -63.995075 145.4037
417.37167 -63.997822 145.43962
417.37341 -63.993435 145.48332
417.37146 -63.998257 145.517
417.37149 -63.997692 145.55682
417.37042 -64.000504 145.59337
417.37003 -64.001266 145.63255
417.3717 -63.995762 145.67912
417.36896 -64.003525 145.71162
417.37018 -63.999393 145.75656
417.37042 -63.998268 145.79886
417.36868 -64.002983 145.83447
417.36942 -64.000328 145.87912
417.36951 -64.000259 145.92133
417.3699 -63.999184 145.96548
417.3725 -63.990303 146.01837
417.35184 -64.051712 145.98877
417.36151 -63.898956 139.12129
417.36868 -63.877499 139.13927
417.36887 -63.876915 139.15875
417.36905 -63.876381 139.17838
417.36972 -63.874279 139.19746
417.36969 -63.874348 139.21698
417.36993 -63.873539 139.2363
417.36899 -63.876331 139.25601
417.37415 -63.860954 139.27478
417.37625 -63.854626 139.29422
417.37759 -63.850502 139.31352
419.69312 -56.940823 139.00768
419.69385 -56.93869 139.05104
417.37805 -63.849072 139.35214
419.69363 -56.93932 139.09389
417.37753 -63.850571 139.37189
419.69305 -56.940994 139.13785
417.37851 -63.847633 139.39134
419.69299 -56.941158 139.18144
417.37689 -63.852337 139.41109
419.69275 -56.941929 139.22519
417.37943 -63.84478 139.43044
419.6926 -56.942364 139.26877
417.37778 -63.849606 139.45009
419.69238 -56.942936 139.31233
417.37747 -63.850468 139.46956
419.69238 -56.942932 139.35571
417.37827 -63.848068 139.48906
419.69186 -56.944489 139.39928
417.37839 -63.84763 139.50851
419.69144 -56.945705 139.44266
417.37842 -63.847485 139.52826
419.6925 -56.942551 139.48665
417.37708 -63.851433 139.54802
419.69278 -56.941666 139.53065
417.37769 -63.849518 139.5674
419.22592 -58.334732 139.57257
419.70279 -56.911766 139.5739
417.37827 -63.848179 139.58665
419.2359 -58.305752 139.61082
419.69797 -56.927135 139.61684
417.37851 -63.847847 139.60612
419.69858 -56.926285 139.66028
417.37949 -63.84441 139.62569
419.69791 -56.927269 139.70386
417.38004 -63.842739 139.64548
419.70209 -56.914745 139.74811
417.37897 -63.845867 139.6649
419.69629 -56.93198 139.79128
417.37836 -63.847637 139.68456
419.70309 -56.911671 139.83563
417.37772 -63.849464 139.70406
419.68927 -56.952877 139.87825
417.37769 -63.849449 139.72337
419.69263 -56.942776 139.9216
417.3779 -63.848793 139.74287
419.68857 -56.954857 139.96461
417.37695 -63.851513 139.76233
419.68939 -56.952389 140.00824
417.37784 -63.848846 139.78204
419.68817 -56.955982 140.05182
417.37589 -63.854534 139.8015
419.68808 -56.956165 140.09567
417.37729 -63.850338 139.82138
419.68741 -56.958141 140.13947
417.3761 -63.853771 139.8407
419.68912 -56.952896 140.18314
417.37585 -63.854416 139.85994
419.68607 -56.961971 140.22562
417.37518 -63.856312 139.87932
419.68637 -56.961021 140.2691
419.68552 -56.963512 140.31224
417.37665 -63.851784 139.91888
419.6864 -56.960747 140.35666
417.37689 -63.851028 139.93852
419.68561 -56.963055 140.40013
417.37488 -63.85696 139.95778
419.68524 -56.964085 140.44386
419.68515 -56.964298 140.48752
419.69101 -56.948746 140.53194
419.68701 -56.959557 140.57513
418.23917 -61.278667 140.25386
418.23969 -61.277069 140.28246
418.24063 -61.274158 140.31139
418.24075 -61.27372 140.34035
418.23737 -61.28371 140.36777
418.23618 -61.287209 140.3961
418.23422 -61.292904 140.4241
418.21036 -61.364017 140.44518
418.21295 -61.356194 140.47443
418.20987 -61.365238 140.5022
418.20978 -61.365391 140.53081
418.21591 -61.348293 140.56104
418.21552 -61.348782 140.58948
418.21432 -61.352234 140.61746
418.21545 -61.34877 140.64677
418.21536 -61.348927 140.67564
417.3772 -63.849064 140.35258
418.21619 -61.346333 140.70471
417.35626 -63.911396 140.36313
417.35602 -63.912041 140.38271
417.35504 -63.914848 140.4019
417.35577 -63.912548 140.42181
417.35562 -63.912907 140.4415
417.3566 -63.909847 140.46196
417.35666 -63.909603 140.48155
417.35632 -63.911404 140.50099
417.35712 -63.908463 140.52132
417.35739 -63.907482 140.54118
417.35593 -63.911751 140.56044
417.35687 -63.908817 140.58086
417.35669 -63.909229 140.60077
417.35526 -63.913391 140.61969
417.35544 -63.91275 140.63976
417.35739 -63.906776 140.66069
417.3551 -63.913486 140.67935
417.35397 -63.916763 140.6987
417.35571 -63.911484 140.71976
417.35562 -63.911633 140.73979
417.35471 -63.914165 140.75935
417.35303 -63.91954 140.778
417.35526 -63.91317 140.79941
417.35501 -63.913315 140.81963
417.35297 -63.919315 140.8383
417.35553 -63.911575 140.86061
417.35349 -63.9175 140.87947
417.35425 -63.915131 140.90018
417.35349 -63.917221 140.91983
417.35382 -63.916111 140.94016
417.35303 -63.918358 140.95996
417.35437 -63.914219 140.98143
417.35397 -63.915215 141.00162
417.35233 -63.92001 141.02104
417.35345 -63.916508 141.04233
417.35355 -63.916061 141.06284
417.35248 -63.919109 141.08235
417.35199 -63.920418 141.10251
417.35318 -63.916756 141.1241
417.35248 -63.918713 141.14436
417.35168 -63.920967 141.16458
417.35263 -63.917957 141.18604
417.35202 -63.920086 141.20605
417.35077 -63.924126 141.2256
417.35303 -63.916805 141.24881
417.35104 -63.922523 141.26788
417.35065 -63.923569 141.28856
417.35287 -63.916756 141.31181
417.34958 -63.926464 141.32944
417.34995 -63.925163 141.35074
417.35052 -63.923271 141.37236
417.35007 -63.92448 141.39333
417.34854 -63.928883 141.4131
417.34897 -63.927456 141.43478
417.35001 -63.924236 141.45691
417.34879 -63.927715 141.47708
417.34854 -63.928268 141.49808
417.34863 -63.927811 141.51962
417.34726 -63.93174 141.53979
417.34811 -63.929031 141.56248
417.3493 -63.925236 141.58546
417.3476 -63.930183 141.60507
417.34787 -63.929649 141.62674
417.34995 -63.923813 141.65039
417.34851 -63.927452 141.6709
417.34741 -63.930515 141.69157
417.34726 -63.930756 141.71338
417.34613 -63.93396 141.73407
417.34753 -63.929592 141.75748
417.34641 -63.932838 141.77792
417.34592 -63.933899 141.82144
417.3465 -63.931969 141.84453
417.34409 -63.938972 141.86406
417.34573 -63.933868 141.88852
417.34552 -63.934795 141.91037
417.3439 -63.939941 141.93039
417.34555 -63.934311 141.95503
417.34695 -63.92997 141.97942
417.34424 -63.937809 141.99869
417.3461 -63.93211 142.02382
417.34586 -63.93264 142.04634
417.34552 -63.933414 142.06865
417.34482 -63.935329 142.09041
417.3454 -63.933407 142.11398
417.3219 -64.003769 142.10445
417.31677 -64.003403 144.05742
417.32828 -63.968658 144.11691
417.32886 -63.966579 144.14972
417.32996 -63.963566 144.18307
417.32904 -63.966537 144.21179
417.32959 -63.963982 144.24525
417.32819 -63.967789 144.27409
417.32877 -63.965736 144.30788
417.32825 -63.966927 144.33939
417.3287 -63.965191 144.37292
417.328 -63.966953 144.40335
417.32895 -63.963745 144.43867
417.32651 -63.970657 144.46519
417.32687 -63.969231 144.49979
417.32672 -63.969833 144.53244
417.32724 -63.968483 144.56717
417.32602 -63.971241 144.59775
417.32751 -63.966396 144.63567
417.32559 -63.971745 144.66451
417.327 -63.967106 144.70319
417.32501 -63.972668 144.73239
417.32602 -63.969303 144.77007
417.32416 -63.974434 144.79964
417.32498 -63.972157 144.83676
417.32501 -63.972317 144.8714
417.32495 -63.971478 144.90747
417.32431 -63.973007 144.94165
417.32388 -63.973827 144.97673
417.32416 -63.972576 145.01447
417.32224 -63.977951 145.04489
417.32321 -63.974659 145.08447
417.32208 -63.978161 145.11723
417.3237 -63.973515 145.15862
417.32199 -63.977634 145.19157
417.32251 -63.975655 145.23135
417.32108 -63.979439 145.26543
417.32101 -63.979218 145.30292
417.32138 -63.977688 145.34244
417.32065 -63.979393 145.37854
417.32123 -63.977261 145.41965
417.31952 -63.982498 145.45279
417.32056 -63.97961 145.49561
417.3205 -63.97871 145.53557
417.31873 -63.983528 145.57005
417.32059 -63.977512 145.61597
417.31882 -63.982307 145.65053
417.31897 -63.981403 145.69167
417.31885 -63.9813 145.73279
417.31705 -63.986172 145.76842
417.31778 -63.983479 145.81288
417.3172 -63.98473 145.85257
417.31702 -63.985508 145.8933
417.3186 -63.980892 145.94089
417.3197 -63.976383 145.98859
417.30731 -64.013016 145.98903
417.29535 -64.048363 145.98981
417.28772 -63.951878 139.11603
417.31754 -63.862808 139.12819
417.31924 -63.857685 139.1474
417.3183 -63.860432 139.16719
417.31909 -63.858032 139.18661
417.31873 -63.85902 139.20605
417.3186 -63.859356 139.22551
417.31918 -63.857613 139.24496
417.31915 -63.85759 139.26453
417.32324 -63.845318 139.28334
417.32684 -63.834518 139.30251
419.64285 -56.921692 138.98244
417.32916 -63.827579 139.32161
419.6424 -56.923035 139.0258
417.32748 -63.832539 139.34125
419.6423 -56.923328 139.06911
417.32736 -63.832821 139.36073
419.6424 -56.923042 139.11253
417.32761 -63.831978 139.38033
419.64243 -56.922882 139.15628
417.32785 -63.831192 139.39992
419.64218 -56.923569 139.20003
417.32666 -63.834732 139.41969
419.64117 -56.926521 139.24399
417.32797 -63.830757 139.43906
419.64212 -56.923695 139.28732
417.32791 -63.830868 139.4586
419.64069 -56.927876 139.33096
417.32773 -63.83128 139.47807
419.6413 -56.926033 139.37431
417.32635 -63.835308 139.49751
419.64066 -56.927883 139.41756
417.32721 -63.83276 139.51688
419.64459 -56.916115 139.46066
417.32706 -63.833111 139.53647
419.64099 -56.926765 139.50444
417.32785 -63.830685 139.5562
419.17099 -58.329498 139.55002
419.64508 -56.914555 139.54843
417.32782 -63.830685 139.57574
419.18011 -58.30225 139.58875
419.64465 -56.91576 139.592
417.32797 -63.831078 139.5952
419.17502 -58.319157 139.62724
419.64423 -56.918957 139.63539
417.32721 -63.832817 139.61472
419.65073 -56.898525 139.67914
417.32776 -63.831104 139.63426
419.16037 -58.361893 139.70409
419.68811 -56.786835 139.7242
417.32748 -63.831825 139.65378
419.66663 -56.850922 139.76718
417.32736 -63.832134 139.67339
419.64618 -56.911823 139.80995
417.32672 -63.833927 139.69295
419.64828 -56.905552 139.85385
417.32648 -63.834595 139.71246
419.63864 -56.93425 139.89671
417.32675 -63.83366 139.73195
419.64465 -56.916157 139.94063
417.32632 -63.834923 139.75145
419.63779 -56.936588 139.98355
417.32639 -63.834587 139.771
419.6369 -56.939148 140.02699
417.3255 -63.837147 139.79024
419.63654 -56.940166 140.07002
417.32578 -63.836224 139.80981
419.63715 -56.938259 140.11366
417.32446 -63.840096 139.82918
419.6358 -56.942173 140.15704
417.32669 -63.833382 139.84921
419.63538 -56.943394 140.20087
417.32602 -63.835239 139.86853
419.63641 -56.940224 140.24431
417.32687 -63.832668 139.88832
419.63809 -56.935081 140.28836
419.63419 -56.946621 140.33098
419.63443 -56.945774 140.3748
419.63376 -56.94767 140.41847
419.63351 -56.948284 140.46223
419.63702 -56.938721 140.50662
419.63623 -56.942032 140.54962
418.18924 -61.25893 140.23747
419.64005 -56.929462 140.59421
418.18896 -61.259666 140.26616
418.18835 -61.261414 140.29457
418.18842 -61.261131 140.32317
418.1908 -61.253906 140.35307
418.18573 -61.268898 140.3801
418.18689 -61.265343 140.40906
418.16302 -61.336384 140.42989
418.15973 -61.34618 140.45709
418.15897 -61.34832 140.48555
418.15887 -61.348423 140.51413
418.15985 -61.346073 140.54294
418.16495 -61.331356 140.57344
418.16635 -61.326458 140.60246
418.16418 -61.332783 140.63019
418.16418 -61.3326 140.65868
418.16379 -61.333706 140.68721
417.32227 -63.84481 140.35915
418.16364 -61.333977 140.71599
417.30469 -63.89711 140.37144
417.30386 -63.899422 140.39076
417.30603 -63.892857 140.41132
417.30511 -63.8955 140.43042
417.30429 -63.89777 140.44986
417.3064 -63.891422 140.47064
417.30536 -63.894802 140.48996
417.30606 -63.893074 140.50999
417.3063 -63.891785 140.52995
417.30594 -63.892677 140.54936
417.30463 -63.896477 140.56854
417.30527 -63.894478 140.58865
417.30624 -63.891426 140.60928
417.30502 -63.89497 140.62869
417.30392 -63.89806 140.6479
417.30539 -63.893551 140.66878
417.30444 -63.896259 140.68787
417.30402 -63.897442 140.7075
417.30548 -63.89291 140.72858
417.3042 -63.896599 140.74802
417.30344 -63.898693 140.76767
417.30389 -63.897648 140.78804
417.3045 -63.896164 140.80832
417.3028 -63.900692 140.82732
417.3046 -63.895153 140.84872
417.3045 -63.895226 140.8688
417.30356 -63.897964 140.88858
417.30225 -63.901676 140.90805
417.30389 -63.896648 140.92952
417.30258 -63.900444 140.94879
417.30225 -63.901299 140.96881
417.3028 -63.899441 140.98947
417.30209 -63.901402 141.00949
417.30215 -63.901108 141.03004
417.30417 -63.894943 141.05235
417.30194 -63.901451 141.07115
417.30154 -63.902458 141.09123
417.30182 -63.901485 141.11197
417.30136 -63.902679 141.13228
417.30133 -63.902565 141.153
417.30243 -63.899109 141.17479
417.30154 -63.90163 141.19475
417.29984 -63.907486 141.21367
417.2999 -63.906647 141.23457
417.302 -63.900253 141.25731
417.3002 -63.905396 141.27687
417.29913 -63.908493 141.29684
417.30011 -63.905357 141.31903
417.29913 -63.908119 141.3391
417.29813 -63.910942 141.35916
417.29947 -63.906796 141.38145
417.29895 -63.908131 141.40193
417.29794 -63.910976 141.42224
417.29855 -63.908947 141.44429
417.29742 -63.912132 141.46448
417.29681 -63.913834 141.48526
417.29895 -63.907234 141.50885
417.29761 -63.91106 141.52882
417.29694 -63.91293 141.54953
417.29895 -63.906643 141.57346
417.29733 -63.911346 141.59322
417.29663 -63.913254 141.61418
417.29874 -63.907192 141.63802
417.29788 -63.910091 141.65842
417.29651 -63.913486 141.67885
417.29907 -63.905689 141.70381
417.2966 -63.912861 141.72296
417.29648 -63.912987 141.74489
417.29764 -63.90934 141.76813
417.29474 -63.917793 141.78674
417.29465 -63.917847 141.80861
417.29617 -63.913166 141.83263
417.29514 -63.91605 141.85352
417.29456 -63.917542 141.87527
417.29584 -63.913555 141.89922
417.29465 -63.91737 141.91988
417.29437 -63.9184 141.94176
417.29523 -63.915222 141.96539
417.29562 -63.913818 141.98869
417.29434 -63.917446 142.0096
417.2962 -63.911652 142.03505
417.29404 -63.917862 142.05498
417.29333 -63.919807 142.07693
417.29523 -63.913891 142.1022
417.28061 -63.957863 142.10461
417.26373 -64.008507 142.10361
417.27448 -63.958916 144.09241
417.2782 -63.947418 144.13289
417.27692 -63.95084 144.16129
417.27823 -63.947643 144.19548
417.27734 -63.94944 144.22514
417.27725 -63.949341 144.25652
417.27649 -63.951248 144.2868
417.27713 -63.94894 144.321
417.27676 -63.949654 144.35263
417.27722 -63.947903 144.38649
417.27499 -63.954189 144.41321
417.27643 -63.949474 144.44971
417.27502 -63.953293 144.47891
417.27646 -63.948627 144.51637
417.27393 -63.956352 144.54314
417.27591 -63.950638 144.58167
417.27469 -63.953323 144.61287
417.27512 -63.951576 144.64803
417.27368 -63.955498 144.67812
417.27441 -63.952873 144.71425
417.27356 -63.955067 144.74693
417.27472 -63.951118 144.78537
417.27298 -63.955959 144.81567
417.27338 -63.954918 144.85158
417.27362 -63.954391 144.88722
417.27258 -63.956455 144.9203
417.27298 -63.9548 144.95743
417.27094 -63.960518 144.98735
417.27286 -63.954319 145.03008
417.27017 -63.961956 145.05899
417.27173 -63.956844 145.10048
417.27023 -63.962074 145.13177
417.27063 -63.959805 145.17044
417.27005 -63.961086 145.2063
417.27042 -63.959557 145.24544
417.27173 -63.955173 145.28783
417.26877 -63.963539 145.317
417.26901 -63.96241 145.35619
417.26816 -63.964512 145.39195
417.26855 -63.962811 145.4324
417.26782 -63.965153 145.46915
417.26782 -63.965282 145.50838
417.26831 -63.9627 145.55042
417.267 -63.966175 145.58661
417.26715 -63.965218 145.6272
417.26758 -63.963379 145.6692
417.26599 -63.967712 145.70518
417.26675 -63.964897 145.74872
417.26562 -63.967716 145.78706
417.26593 -63.966328 145.83003
417.26602 -63.965485 145.87239
417.26538 -63.967552 145.91161
417.26642 -63.964634 145.95706
417.26944 -63.954353 146.01134
417.25 -64.012131 145.98639
417.23828 -64.046799 145.98848
417.25345 -63.886639 139.12044
417.26877 -63.840839 139.13618
417.26865 -63.841183 139.15575
417.2695 -63.838512 139.17516
417.26776 -63.8437 139.19524
417.26904 -63.839733 139.21455
417.26859 -63.841034 139.23415
417.26843 -63.841465 139.25337
417.27167 -63.83176 139.27237
417.2728 -63.828274 139.29164
417.27798 -63.812767 139.31046
419.59109 -56.906956 139.00035
417.27655 -63.816967 139.33035
419.59091 -56.907383 139.0443
417.27731 -63.81461 139.34973
419.59109 -56.906776 139.08771
417.27759 -63.813725 139.3694
419.5914 -56.905819 139.13159
417.2771 -63.815041 139.38884
419.59164 -56.905014 139.17484
417.27695 -63.815468 139.40848
419.58884 -56.913338 139.2188
417.27667 -63.816196 139.42781
419.58939 -56.911625 139.26183
417.27798 -63.812241 139.4474
419.5907 -56.907658 139.30559
417.2767 -63.815933 139.46695
419.59006 -56.909523 139.34901
417.27734 -63.813995 139.48651
419.59 -56.909626 139.39272
417.27762 -63.813065 139.50612
419.59006 -56.909389 139.4364
417.27686 -63.815281 139.52553
419.58981 -56.910004 139.47963
417.27686 -63.815186 139.54512
419.59097 -56.906487 139.5233
417.27637 -63.816574 139.56458
419.1167 -58.32235 139.56625
419.5946 -56.895515 139.56668
417.2774 -63.813805 139.58418
419.59131 -56.906357 139.61038
417.27725 -63.814648 139.6037
419.61017 -56.85096 139.65433
417.27686 -63.815228 139.62329
419.59241 -56.902878 139.69766
417.27652 -63.816147 139.64267
419.59778 -56.886765 139.74112
417.27649 -63.816181 139.66228
419.59601 -56.891884 139.78481
417.27673 -63.815327 139.68167
419.59781 -56.886467 139.82822
417.2757 -63.818325 139.7012
419.5878 -56.916271 139.87126
417.2767 -63.815228 139.7209
419.59113 -56.906158 139.91524
417.27612 -63.816925 139.74039
419.58627 -56.920586 139.95836
417.27637 -63.816078 139.75995
419.58563 -56.922356 140.00183
417.27557 -63.818371 139.77927
419.58655 -56.919506 140.04517
417.27466 -63.820957 139.79863
419.5849 -56.924381 140.08835
417.27533 -63.818871 139.81819
419.58533 -56.922997 140.13181
417.27487 -63.820171 139.83791
419.58475 -56.924614 140.17577
417.27588 -63.817024 139.85754
419.58444 -56.925392 140.21915
417.27451 -63.821045 139.87697
419.5867 -56.91851 140.26328
417.2746 -63.820629 139.89662
419.58344 -56.928101 140.30649
417.27509 -63.819077 139.91608
419.5835 -56.927853 140.34964
417.27612 -63.815945 139.93587
419.58276 -56.929893 140.39313
419.58215 -56.931576 140.43634
419.58286 -56.929401 140.4803
419.58789 -56.915188 140.52541
417.27484 -63.820206 140.01414
419.58386 -56.928051 140.56828
418.14005 -61.23687 140.2504
418.13803 -61.242813 140.27835
418.13809 -61.242466 140.30684
418.13757 -61.243877 140.3354
418.13806 -61.24231 140.36424
418.1344 -61.253124 140.39207
418.13672 -61.246075 140.42152
418.11041 -61.324482 140.44177
418.11023 -61.324875 140.46989
418.10852 -61.329849 140.49773
418.10812 -61.330936 140.52632
417.27124 -63.829552 140.24887
418.11346 -61.31543 140.55666
418.11313 -61.316982 140.58507
418.11346 -61.315212 140.61401
418.1131 -61.316151 140.64233
418.11319 -61.315754 140.67075
417.27628 -63.813915 140.34972
418.11362 -61.314323 140.69974
417.25424 -63.879574 140.36017
417.25491 -63.877396 140.38023
417.25269 -63.883968 140.399
417.25473 -63.877674 140.41959
417.25482 -63.877312 140.4393
417.25568 -63.874634 140.4592
417.25577 -63.874184 140.47913
417.25357 -63.881077 140.4977
417.254 -63.880093 140.51775
417.25562 -63.874653 140.53865
417.25394 -63.879566 140.5575
417.25412 -63.878906 140.57719
417.25613 -63.87273 140.59808
417.25342 -63.880646 140.61653
417.25336 -63.880703 140.63652
417.25366 -63.879646 140.65668
417.25427 -63.877724 140.67705
417.25351 -63.87981 140.69656
417.25446 -63.876842 140.71715
417.25485 -63.875546 140.73727
417.25394 -63.878094 140.75697
417.25177 -63.884396 140.77571
417.25403 -63.87801 140.79712
417.25244 -63.883057 140.81601
417.25232 -63.88279 140.83632
417.25342 -63.879345 140.85719
417.25226 -63.882683 140.87651
417.25174 -63.884026 140.89645
417.25278 -63.880817 140.91754
417.25305 -63.879787 140.93829
417.25226 -63.881992 140.95796
417.25284 -63.880112 140.97868
417.25262 -63.880573 140.99872
417.25168 -63.883247 141.01855
417.25079 -63.885742 141.03839
417.25262 -63.880066 141.06058
417.2507 -63.885677 141.07962
417.2496 -63.888805 141.09927
417.2507 -63.885303 141.12056
417.25064 -63.885342 141.14107
417.25107 -63.8839 141.16225
417.25238 -63.879791 141.18427
417.24985 -63.887676 141.20282
417.24948 -63.889 141.22331
417.25275 -63.878586 141.24699
417.24979 -63.887276 141.26523
417.24942 -63.888229 141.28563
417.24988 -63.886639 141.30731
417.24884 -63.889568 141.32724
417.24722 -63.894245 141.347
417.24884 -63.889168 141.36963
417.24893 -63.888695 141.39084
417.24667 -63.895325 141.40979
417.24869 -63.889118 141.43298
417.24771 -63.891838 141.4534
417.24759 -63.891941 141.47481
417.2471 -63.893223 141.49577
417.24631 -63.895405 141.51622
417.24567 -63.897186 141.53676
417.24673 -63.893719 141.55946
417.24802 -63.889709 141.5826
417.24689 -63.892918 141.60307
417.24579 -63.895973 141.62364
417.24686 -63.89307 141.64633
417.2467 -63.893299 141.6678
417.24655 -63.893551 141.68915
417.24597 -63.895111 141.71045
417.24573 -63.895611 141.73212
417.24426 -63.899761 141.75247
417.24448 -63.89893 141.77499
